ply
format ascii 1.0
comment Created by Open3D
element vertex 1041
property float32 x
property float32 y
property float32 z
property float32 nx
property float32 ny
property float32 nz
end_header
9743 21238 -287 0.627758 -0.778188 -0.0185064
8136 19781 -900 0.659702 -0.74808 0.0718991
8819 20347 -933 0.653221 -0.752732 0.0818376
15532 39898 1513 0.739224 -0.673113 -0.0216047
16569 40841 1558 0.653488 -0.754893 0.055594
10139 21522 -1001 0.633023 -0.770938 0.0702649
38675 60729 2114 0.657866 -0.732748 0.174052
38682 60623 -3018 0.271054 -0.412156 0.869861
74583 25673 1846 -0.990961 0.11819 -0.0634681
74786 25967 -31 -0.98484 -0.066572 0.160182
81293 34625 1016 -0.500699 -0.778583 -0.378297
52090 11092 -654 -0.664431 -0.681555 0.306618
42636 3714 1002 -0.535463 0.522154 0.663803
44124 1665 -17 -0.621947 0.625143 0.47157
44139 1574 245 -0.624295 0.779437 0.0522943
44039 1502 245 -0.642106 0.765046 -0.0490316
38524 -1631 -244 -0.884832 0.438469 -0.157537
35927 -1885 1057 -0.569884 0.755145 0.324018
37548 -782 1328 -0.474913 0.741164 0.474482
35195 -2317 -14 -0.630411 0.766647 0.121795
41330 -4753 -264 -0.737158 -0.672427 -0.0666246
35036 -4697 -14 -0.426722 0.904378 -0.00306569
41296 -4844 231 -0.75179 -0.646721 -0.128701
29078 -9707 -194 -0.920898 0.383245 -0.0712022
29912 -10439 -12 -0.659736 0.677252 0.325696
4482 -1657 -2183 0.131764 -0.0379409 0.990555
29869 -10465 176 -0.683511 0.722256 0.105637
34035 -16120 882 -0.674971 0.735926 -0.0531759
34076 -16057 1107 -0.68001 0.731456 -0.0505829
8167 -3495 -1179 -0.183403 0.690325 0.699867
4176 -2189 -2155 0.0693156 0.00108314 0.997594
5855 -3094 -2190 -0.084519 -0.00626177 0.996402
32131 -16145 200 -0.969688 -0.234113 -0.0699694
32553 -23939 706 -0.662023 0.740928 0.112922
22206 -16899 -1173 -0.974388 0.167421 0.15013
22149 -17528 -179 -0.996705 0.0574111 0.0572987
32824 -23637 1430 -0.625353 0.776848 -0.0737597
13314 -11477 -1475 -0.991693 -0.128442 0.00691657
29129 -26563 688 -0.954323 -0.298106 0.0200184
29304 -26520 -485 -0.966025 -0.252188 0.0565329
28155 -25055 -239 -0.67057 -0.740738 0.0405411
13253 -11614 -2009 -0.989411 0.134412 0.0547636
22383 -16003 -666 -0.984523 -0.0933042 -0.148357
13362 -11717 -536 -0.919672 -0.367436 0.138544
42114 -41215 -23 -0.84995 -0.510247 -0.131276
22624 -48145 -1601 0.646835 0.584827 0.489471
327 -654 -340 -0.158866 0.510516 -0.845065
4319 -26520 -170 0.498783 0.866727 -0.000177366
357 -14090 -1779 -0.332846 0.467158 0.819132
-14390 -22736 -171 -0.452291 0.887985 0.0831562
-18119 -25914 929 -0.66412 0.739161 -0.112182
-18560 -26281 946 -0.573399 0.781208 -0.246835
-24842 -32063 950 -0.633596 0.747186 -0.200673
-4107 -2880 -2290 -0.0785765 -0.0553538 0.99537
-70287 -36428 -971 0.80351 -0.595028 0.0176897
-87746 -52021 -40 0.456823 -0.49851 -0.73675
-46330 -8810 -579 0.911481 -0.407463 -0.0563537
-49646 -11749 -20 0.998826 -0.0190613 -0.044539
-51520 -13211 295 0.617163 -0.786259 0.0301267
-46285 -8752 -18 0.87372 -0.482868 -0.0587545
-46290 -8735 262 0.866778 -0.493154 -0.0741309
-29152 8028 -372 0.786052 -0.617473 -0.0291363
-26300 7930 -2302 0.978293 -0.193841 0.0732765
-26298 8019 -2304 0.978833 -0.193394 0.0669672
-26277 8229 -175 0.988126 -0.15344 0.00791382
-26289 8323 -175 0.988126 -0.15344 0.00791382
-26397 8014 153 0.982455 -0.186047 0.0129919
-26259 8069 -1646 0.951404 -0.282341 -0.122943
-26243 8155 -1646 0.978316 -0.198126 -0.0603713
-34276 17482 -473 0.696304 0.717473 -0.0198035
-33114 16152 -1548 0.505247 0.86179 0.0452031
-48605 33309 -723 -0.399623 -0.789745 -0.465407
-47707 34487 -723 0.734213 -0.597664 0.322071
-48558 33122 1726 0.832618 0.545725 0.0945099
-48584 33363 1731 0.883991 0.45946 0.0863531
-62710 47951 -969 0.950654 0.309689 0.0187093
-44762 28805 -1919 0.779753 0.598316 -0.184398
-48381 33609 678 0.775719 0.447 0.445479
-63740 61036 -3179 0 0 1
-37074 31786 -2923 0.0457666 -0.0391321 -0.998185
-14499 16055 -910 0.981013 -0.189975 0.0390153
-11734 16858 -2340 0.537764 -0.553316 0.636122
-11596 17380 -879 0.675277 -0.71979 0.160943
-11360 17229 -2351 0.49065 -0.537868 0.685536
-11190 17383 -2355 0.660334 -0.608752 0.43975
-10387 18009 116 0.524704 -0.847614 -0.0789663
-10118 18264 116 0.713408 -0.698514 -0.055918
-7258 21175 -275 0.594034 -0.804222 0.0187359
-6851 21454 -1889 0.613584 -0.658394 0.435926
-7083 21207 658 0.695431 -0.716882 -0.0495571
-7240 21026 124 0.626184 -0.77958 -0.0122365
-3089 24871 -2101 0.610854 -0.738311 0.285928
-2706 25341 597 0.667905 -0.742053 -0.0570884
-3301 24740 -10 0.262203 -0.952449 -0.155214
-1397 26446 -2220 0.0796898 -0.862819 0.499193
-1358 26492 -2223 0.196929 -0.874727 0.442801
-3019 25000 -909 0.667021 -0.744946 -0.0117115
-614 27511 -1321 0.746467 -0.624068 0.230923
-2341 25597 909 0.671007 -0.74052 -0.0371528
169 28259 -1356 0.411466 -0.67816 -0.60893
-1478 26509 -958 0.362981 -0.927192 -0.0925135
1157 28896 -2423 0.321291 -0.518338 -0.792526
-915 27167 -981 0.780581 -0.591073 -0.203289
-874 27220 -983 0.7544 -0.618284 -0.220467
-628 26636 943 0.17508 -0.962663 0.206461
-546 26729 946 0.24271 -0.952345 0.184746
1771 28994 -1394 0.644987 -0.759126 0.0878574
-231 27007 -975 0.324655 -0.92197 -0.211118
-212 27016 956 -0.167082 -0.475755 -0.863563
198 27591 -996 0.810638 -0.585444 0.0109822
-395 27300 -823 -0.285928 -0.876553 0.387169
1472 28719 -1038 0.669647 -0.742516 -0.0155804
1458 28629 -1888 0.65475 -0.755657 -0.0169002
4230 30587 908 -0.313718 -0.949503 0.00501905
5458 30856 734 0.485919 -0.672563 0.558159
4311 30469 905 -0.323577 -0.946197 -0.00293398
6009 30689 -384 0.639744 -0.760362 0.112154
5048 30407 -12 -0.61805 -0.781785 -0.0826166
5517 30281 -12 0.426426 -0.89206 0.149636
5558 18735 -240 -0.744107 -0.656631 0.123044
7710 33176 -2446 0.0238895 -0.998014 -0.0582822
6529 31152 177 0.42049 -0.824796 0.37802
6287 18214 -237 0.377489 -0.886643 0.267145
11888 36721 1134 0.526815 -0.547067 0.650526
7311 19105 -252 0.624817 -0.780722 0.00879392
7424 19218 -253 0.687953 -0.721932 0.0743991
7917 19660 -261 0.668224 -0.741764 0.0571216
8139 19850 -264 0.640768 -0.76768 0.00911036
11888 36730 1365 0.609641 -0.641456 0.465696
9149 20713 -278 0.648925 -0.760671 0.0166099
23832 47848 -974 0.637381 -0.770488 0.0096927
23826 47909 1252 0.612972 -0.784319 0.0954462
5977 18225 -464 -0.673478 -0.58084 -0.457223
9870 21295 -987 0.661268 -0.746268 0.0762113
10215 21595 -1005 0.62824 -0.77499 0.0685974
39035 61083 2128 0.649133 -0.744229 0.157322
68526 56639 -35 0 0 1
68534 56332 493 -0 -0 -1
5235 3179 -2464 -0.125248 0.0273854 0.991747
5273 3466 -2472 0.019028 0.0620832 0.99789
81909 34330 1549 -0.615415 -0.78369 0.0842254
82350 33119 -562 -0.984614 0.0450477 -0.168834
82267 33280 -35 -0.984614 0.0450477 -0.168834
81569 35144 493 -0.909395 0.362396 -0.204134
74732 26643 2329 -0.975365 0.207056 -0.0760954
74672 26358 2325 -0.979522 0.183644 -0.082536
74709 26600 -31 -0 0 1
74631 26655 2799 -0.969152 0.2126 -0.124679
47253 13509 -2064 -0.810754 -0.208877 -0.546853
9786 2152 296 -0.172655 -0.279275 -0.944561
52482 10175 -21 -0.951229 -0.287495 -0.11185
42795 3525 1005 -0.541416 0.451726 0.709093
3155 440 -692 -0.735746 -0.672191 -0.0826922
3343 439 -1125 -0.976667 -0.048262 0.209264
38735 -1111 -476 -0.930922 -0.362758 0.0423103
44227 1738 -17 -0.484894 0.59785 0.63832
44377 1793 247 -0.67835 0.732482 0.0575485
36887 -1121 1084 -0.517412 0.704779 0.485357
30098 -10398 -12 -0.616884 0.744607 0.254981
29365 -10861 174 -0.98581 0.139251 0.0937405
5936 -2719 -2160 0.0203745 0.0793047 0.996642
5910 -2832 -2168 0.00397568 0.0267984 0.999633
5797 -3252 -2198 -0.11206 0.0109707 0.993641
33250 -19657 -15 -0.59619 0.800507 -0.0612057
3927 -2755 -2192 -0.00525543 -0.0953738 0.995428
33430 -31394 -18 -0.900161 0.435258 -0.016157
28877 -30254 -1757 -0.984797 0.0131299 0.17321
13294 -11437 -1052 -0.952777 -0.289488 0.0917241
13928 -16969 -139 -0.452528 0.880333 0.142242
26054 -53121 -375 0.615034 0.788044 0.026847
8792 -17593 -2241 -0.669762 0.620176 0.408412
32878 -82530 3137 0.225143 0.953639 -0.199708
8279 -31249 -397 0.416729 0.908935 0.0132198
6765 -29200 -368 0.598166 0.799988 -0.0470876
8362 -31296 -13 0.42599 0.897308 -0.115635
6591 -29212 -902 0.502956 0.860045 -0.0857809
-4539 -16682 509 0.0876343 0.987602 -0.130241
-4539 -16705 -1765 -0.0191919 0.912255 -0.409174
-10316 -18801 -136 0.497826 0.865262 -0.0590867
-15338 -23446 -1345 0.238366 0.950751 0.198125
-21486 -29035 846 -0.678283 0.724863 -0.120439
-22086 -29552 864 -0.238613 0.966539 -0.0941591
-19023 -26781 378 0.351762 0.935464 0.0342055
-22248 -29595 -895 0.0478618 0.994032 -0.0980261
-75471 -46742 2077 0.0223657 0.0119071 0.999679
-50210 -18208 932 0.659729 -0.749856 -0.0497428
-48346 -16506 892 0.691337 -0.721444 -0.0396395
-58549 -22528 -24 0.736205 0.674744 -0.0521834
-42834 -11601 775 0.660314 -0.750865 -0.0136881
-45380 -13310 -581 0.984782 0.166571 0.0495798
-56451 -17686 -375 0.890494 -0.45405 -0.0293041
-56461 -17592 -375 0.890494 -0.45405 -0.0293041
-37291 -10478 907 0.963224 0.236405 0.127717
-56434 -17841 -2133 0.671308 -0.723339 0.161633
-45178 -13902 -1704 0.998752 0.0354955 -0.035142
-49807 -11810 -324 0.84141 0.540209 0.0142926
-56484 -17848 329 0.904515 -0.425943 -0.0206362
-46448 -8908 -581 0.804194 -0.591313 -0.0601796
-49815 -11954 -20 0.995688 0.071537 -0.0590502
-49880 -11957 285 0.991821 -0.013946 -0.126875
-33290 -3092 -212 0.999963 0.00847581 0.00162204
-29897 -44 -367 0.988861 -0.00904392 0.148564
-33248 -3145 -2000 0.999121 0.0415101 0.0058142
-35389 1069 -2331 0.726969 -0.628463 0.276676
-27144 2413 -1795 0.631211 -0.772304 -0.0715493
-26391 5811 -332 0.955143 -0.295292 -0.0224831
-26362 5729 -171 0.928528 -0.350669 -0.121931
-30818 5096 -2057 0.705005 -0.706192 0.0652833
-23140 5699 701 0.969223 -0.236687 -0.0677224
-26306 8158 -2308 0.974932 -0.205535 0.0852191
-27980 7990 -1223 0.267275 -0.959866 0.0849773
-29171 8043 -2174 0.545243 -0.83824 0.00803641
-28750 11023 -378 0.988732 -0.136759 0.0608801
-28823 10834 -1477 0.74972 -0.606724 0.264209
-28884 10690 -2396 0.819366 -0.18906 0.541199
-28820 9803 -12 0.926337 0.146915 -0.346866
-26175 8724 -1653 0.799999 -0.266168 0.537732
-31583 14617 -1462 0.984217 0.102517 0.144244
-30157 13013 -2359 0.643421 0.613497 0.457854
-31995 15298 -1490 0.771187 0.63596 0.0287296
-34342 17557 -1620 0.630668 0.755238 0.17853
-38356 22065 -543 0.890007 0.455737 -0.0138284
-35059 18412 -1428 0.915342 0.394083 -0.0827511
-38335 22100 -1595 0.876265 0.473489 -0.0892659
-44863 29181 1572 0.825402 0.564541 -0.00223739
-21243 14555 -2622 0.0904323 -0.0615047 -0.994002
-15680 16689 -2470 -0.599393 -0.666535 0.443236
-22974 27897 -2595 -0.67389 -0.577603 0.460702
-11874 16797 -743 0.793047 -0.608473 -0.0289374
-10439 18083 -257 0.54725 -0.834547 0.0636238
-10501 18046 -133 0.453652 -0.884344 -0.110159
-11700 16797 -2086 0.608082 -0.665701 -0.432526
-9947 18508 493 0.663991 -0.741217 -0.0985565
-10233 18265 -1505 0.711561 -0.697166 -0.0874059
-10216 18171 116 0.678824 -0.734211 0.0114769
-10044 18334 116 0.760882 -0.638643 -0.114865
-8911 19398 628 0.68087 -0.728663 -0.073931
-8755 19541 630 0.695745 -0.717127 -0.0408318
-7142 21163 657 0.657136 -0.752906 -0.0361151
-2593 25419 599 0.657625 -0.750674 -0.0633915
-3284 24773 -1796 0.198618 -0.976597 0.0825181
-2960 25045 -1812 0.663968 -0.744571 0.0689916
-444 27686 -1329 0.67575 -0.68568 0.270565
-2267 25684 912 0.682187 -0.729767 -0.0454044
-55 27930 -2174 0.292381 -0.626558 -0.722453
-1274 26614 -962 0.44275 -0.896603 -0.00871361
-1255 26603 942 0.674539 -0.737321 -0.0368196
1254 29023 -2434 0.305759 -0.486013 -0.81872
-1194 26700 -965 0.535117 -0.844047 -0.0351398
-422 26810 949 0.143454 -0.955203 0.258859
2412 29545 -1422 0.671902 -0.737814 0.064638
374 27777 -1002 0.517641 -0.600588 -0.609378
4085 30749 -381 0.0865739 -0.992519 0.0860844
1599 28729 -1895 0.63344 -0.773279 -0.0281626
4149 30713 911 -0.148491 -0.987957 -0.0434836
7472 33437 -1440 -0.351102 -0.933406 0.0740343
7623 33376 -1439 -0.252778 -0.962212 0.101251
6814 31227 -12 0.220034 -0.975475 0.00578525
7052 31198 178 0.237459 -0.970733 0.0359173
7513 33459 -1033 -0.379195 -0.895702 -0.232227
4350 18667 -1953 -0.783427 -0.605671 -0.1393
12130 36877 1141 0.666524 -0.603109 0.438184
8007 19705 -262 0.673499 -0.737707 0.0467736
4777 19651 -490 -0.693811 -0.533186 -0.484085
7312 19038 -858 0.578377 -0.804713 0.133854
5323 17616 -1876 -0.0920809 -0.975286 -0.200842
24020 48038 -978 0.65337 -0.757031 -0.00348373
5148 19198 -481 -0.670409 -0.574281 -0.469844
9928 21375 -290 0.653029 -0.757331 -0.00185874
10079 21521 -292 0.59657 -0.801905 -0.0324468
17001 41185 1309 0.672584 -0.738456 0.0480857
8285 19879 -906 0.654075 -0.751602 0.0853271
5417 18891 -476 -0.675301 -0.55656 -0.483953
15771 40137 1524 0.698485 -0.715617 0.00332597
9131 20625 -949 0.645279 -0.760443 0.0730842
31396 54433 1845 0.672656 -0.711235 0.204153
35335 57325 -426 0.311104 -0.946228 -0.088697
31436 54606 2226 0.674906 -0.728992 0.114335
28574 52068 683 0.448759 -0.886767 -0.110726
35362 57280 374 0.41057 -0.890241 0.19724
49012 39589 1099 0.424549 -0.879801 -0.213795
27027 16882 -2670 -0.923917 -0.377526 0.0620685
82419 33737 3145 -0.0679175 -0.0404137 0.996872
17339 5678 -1970 -0.455901 0.164326 0.874729
52895 9537 -660 -0.990765 -0.0943153 0.0974142
52950 9519 -341 -0.997094 -0.0707943 -0.0281449
52556 10523 298 -0.909598 -0.383114 -0.160795
29557 587 -1595 -0.208507 0.714102 -0.668269
34774 -2944 610 -0.605861 0.794742 0.0362947
37062 -1010 1089 -0.535027 0.717858 0.44545
36278 -1617 1067 -0.59816 0.70815 0.375138
29061 -7563 1062 -0.595533 0.572772 0.563269
4599 -1371 -2192 0.0932123 -0.0511023 0.994334
29515 -10946 -200 -0.966745 -0.248966 0.0584881
6403 -2222 -2241 0.0146306 0.190015 0.981672
6439 -3116 -1604 -0.940196 -0.337054 0.0492605
25929 -12560 -183 -0.840203 0.468277 -0.273451
33055 -17012 871 -0.489773 0.756785 0.432896
32311 -14825 -14 -0.987087 0.159431 -0.0154962
32300 -14881 -14 -0.987087 0.159431 -0.0154962
32985 -17091 1092 -0.609997 0.460607 0.644782
25834 -12791 -11 -0.65592 0.588174 -0.473096
33904 -19051 -15 -0.670755 0.737067 -0.0825784
33769 -19185 -15 -0.659957 0.739521 -0.132532
33719 -19227 -15 -0.655672 0.728854 -0.197146
4080 -2356 -2153 0.0208463 -0.040555 0.99896
21320 -13871 -1070 -0.873996 0.451427 0.179849
19892 -13398 -152 -0.440669 0.749692 -0.493734
19801 -13323 -1715 -0.975382 0.220512 -0.00224831
19714 -13284 -9 -0.13339 0.990228 -0.0406977
14971 -11893 -919 -0.732645 -0.137571 0.666562
22220 -16673 -1664 -0.995513 0.0725084 0.0608054
13190 -11410 -630 -0.902862 -0.419677 0.0933328
27191 -24005 202 0.0735786 0.997236 -0.0102789
50282 -73645 -1094 0 0 1
50049 -73787 -564 0 0 1
27619 -49144 -2032 -0.871654 0.48844 0.0405607
41350 -68241 -2401 0.0133445 -0.0228363 0.99965
40467 -68718 -2399 0.0143374 -0.0233181 0.999625
40358 -68779 -2399 0.015213 -0.025418 0.999561
39884 -68961 -2397 0.0124492 -0.0213557 0.999694
39819 -69098 -2399 0.0127695 -0.0222937 0.99967
39596 -69214 -2399 -0.31915 0.579365 0.749986
39367 -69317 -2398 -0.313944 0.576724 0.754207
38827 -69634 -2399 -0.291885 0.614248 0.733146
38588 -69719 -2397 -0.291625 0.595168 0.748819
38149 -69960 -2397 -0.272345 0.532871 0.801172
38003 -69953 -2395 -0.272345 0.532871 0.801172
8121 -31450 -399 0.451152 0.892427 0.00603068
6843 -29326 -370 0.666089 0.743193 -0.0631651
6737 -29301 -191 0.618185 0.785915 0.0135746
8447 -31416 -13 0.423059 0.900418 -0.101336
8130 -31399 -1170 0.325643 0.945377 0.0148217
7728 -32700 -2213 -0.689377 0.710705 0.140205
-500 -1285 -69 -0.697519 0.432697 -0.571174
-11818 -20318 -149 -0.663007 0.748107 -0.0275164
-22343 -29547 -1997 0.0838866 0.812369 0.577078
-10417 -18874 -650 -0.412982 0.878392 -0.240567
-18775 -26498 955 -0.39809 0.890811 -0.219043
-21745 -29118 1068 -0.593413 0.787912 -0.164485
-39111 -44666 1390 -0.562152 0.807544 -0.178488
-42470 -41453 -376 0.353086 0.935113 0.0299078
-70598 -36727 2810 -0 -0 -1
-50425 -18376 937 0.732351 -0.610421 -0.301743
-38853 -18890 -1558 0.718251 0.638942 0.275443
-48532 -16740 896 0.688848 -0.724304 -0.0295173
-56675 -18073 -730 0.902135 -0.430886 -0.0221377
-56540 -17909 -376 0.890494 -0.45405 -0.0293041
-42982 -11805 1575 0.691326 -0.72254 -0.00206928
-46653 -8989 -301 0.799436 -0.596727 -0.0694192
-46748 -9040 -1433 0.775613 -0.611382 -0.156961
-33444 -2894 -213 0.902038 0.431635 0.00425423
-39721 -2884 -1436 0.716964 -0.696749 0.0224333
-29671 117 872 0.671353 -0.567071 -0.477195
-29596 164 870 0.573083 -0.534427 -0.621259
-28998 5832 -1596 0.239589 -0.967748 0.0778502
-29030 5720 -1420 0.283483 -0.958085 0.0413506
-23276 5599 -2007 0.814952 -0.508827 0.277395
-23239 5668 -2006 0.898187 -0.360948 0.250951
-26381 5714 -2101 0.902477 -0.344587 0.258447
-29024 5736 -715 0.134416 -0.990868 -0.0106677
-35158 18676 -1672 0.876284 0.474819 0.0816927
-45008 29407 -660 0.921827 0.381541 0.0682661
-72185 52099 -1621 0.693293 -0.68879 -0.211928
-72459 51878 -564 0.81235 -0.544405 0.209074
-11872 16866 -131 0.801736 -0.571565 -0.174737
-12108 16570 -741 0.529213 -0.847303 -0.0448448
-10226 18308 -258 0.713923 -0.69064 0.115455
-10445 18273 -886 0.68691 -0.697218 0.205039
-10128 18388 -133 0.715629 -0.68867 -0.116657
-10482 18040 -1500 0.390223 -0.917288 -0.0794257
-10380 18126 -1502 0.673505 -0.737755 -0.0459149
-10849 17619 -2108 0.44972 -0.795693 -0.40574
-8732 19571 631 0.695745 -0.717127 -0.0408318
-7194 21143 -1873 0.584878 -0.669358 0.458123
-7280 21025 655 0.507885 -0.860842 -0.0316818
-7148 21351 -947 0.66215 -0.742281 0.102842
-2522 25514 601 0.678891 -0.730898 -0.0699653
-3257 24906 -1056 0.487798 -0.867885 0.0939663
-3335 24697 -10 0.218224 -0.953386 -0.208408
-1565 26721 -1285 0.274376 -0.960819 0.0393122
-3111 24921 889 0.588287 -0.806359 -0.0608476
-2452 25492 906 0.670141 -0.737225 -0.0860804
-2077 25852 918 0.694147 -0.717495 -0.057967
-1455 26421 936 0.674326 -0.73773 -0.0322231
-1113 26767 -967 0.628239 -0.777535 -0.027467
1186 29206 -1403 0.209913 -0.404784 -0.889992
1673 28884 -1388 0.656512 -0.745927 0.112184
2015 29215 -1405 0.634404 -0.768987 0.078675
2111 29254 -1407 0.639725 -0.765172 0.0725459
2161 29314 -1411 0.658991 -0.74831 0.0759232
2927 30019 -1447 0.62882 -0.776155 0.0465687
949 28209 -1859 0.647933 -0.761578 0.0134603
5363 30148 -376 -0.102647 -0.922858 -0.371209
2991 29962 -1983 0.641848 -0.762043 0.0855704
6730 31383 752 -0.460789 -0.74313 0.485213
8578 32599 589 0.667257 -0.744411 0.0249093
7265 33587 -1035 -0.425367 -0.874897 -0.231555
7327 33621 -1036 -0.383237 -0.89908 -0.211626
7415 33516 -1034 -0.357355 -0.907797 -0.219551
13930 38568 960 0.452505 -0.558589 -0.695138
12235 37000 1145 0.65876 -0.750212 0.0567213
8765 20364 -273 0.614968 -0.788541 -0.00416304
24207 48222 -983 0.657974 -0.752955 -0.011385
5248 19090 -479 -0.713641 -0.529676 -0.458432
9819 21315 -289 0.656441 -0.754232 0.0148022
5539 18759 -474 -0.63346 -0.625464 -0.455548
15967 40262 1531 0.652961 -0.755951 0.0466877
28747 52196 -731 0.161998 -0.979255 0.121726
24090 48194 -21 0.621019 -0.781066 -0.065353
39418 61469 2144 0.622017 -0.773901 0.119047
31823 54734 -1905 0.306338 -0.920442 -0.242782
39456 61404 2578 0.616319 -0.785924 0.049737
52435 72701 -2164 -0.335384 -0.897848 0.285285
27167 16787 -2485 -0.952022 -0.273729 0.136845
3332 465 -1123 -0.971026 0.109902 0.212201
38135 -794 -468 -0.756777 -0.617423 -0.214656
34877 -2788 611 -0.652328 0.757548 0.0242762
36317 -3540 -14 -0.736323 0.670859 -0.0881809
5311 -1920 -1984 -0.548881 0.516693 0.657083
29782 -10551 -12 -0.61293 0.683038 0.39721
29709 -10618 175 -0.645626 0.750111 0.14318
5947 -2667 -2156 0.0213503 0.0743744 0.997002
33342 -16748 1096 -0.660823 0.742901 0.106822
34090 -19016 -247 -0.674567 0.733998 -0.0787844
32155 -15717 199 -0.999776 -0.0205514 -0.00500754
6497 -3127 -1481 -0.976346 -0.205909 0.06596
29024 -26053 681 -0.921257 -0.386359 -0.0448711
29320 -27162 698 -0.789439 0.41392 0.453274
15079 -12101 -814 -0.728588 3.00809e-05 0.684952
28936 -27576 698 -0.702275 0.71166 -0.0186746
58882 -84994 1803 -0.169412 0.984899 -0.0356925
465 -630 -345 0.559325 0.0235179 0.828615
58915 -84966 2419 -0.143129 0.989659 -0.00942477
59384 -84363 -653 0 0 1
39145 -69905 -1459 -0.262998 0.964604 -0.0192724
38782 -70029 -1458 -0.598455 0.800748 -0.0255817
38694 -70130 -1458 -0.640178 0.768142 -0.0114015
39115 -69939 1398 -0.41392 0.910273 -0.00852578
38871 -70017 1397 -0.557221 0.830356 0.00368359
38681 -70195 1398 -0.691486 0.721914 -0.0261943
24308 -51127 -695 0.20289 0.975847 0.080988
24315 -51198 -359 0.290684 0.953727 0.0768684
21874 -54864 -7427 0.0461781 -0.114599 0.992338
20109 -52840 987 -0 -0 -1
23228 -48572 -1941 0.669557 0.612235 0.42055
38853 -70085 -1935 -0.558942 0.760754 0.329906
38745 -70150 -1935 -0.561833 0.738037 0.373691
6538 -29063 -189 0.516262 0.854145 -0.0625211
-19045 -25791 -1538 0.626661 0.723675 0.289121
-17743 -25545 914 -0.715766 0.695145 -0.0667297
-12965 -21392 -754 -0.185775 0.981397 -0.0484471
-20711 -28299 1240 0.838208 -0.517298 -0.172657
-58102 -55189 1398 0.914998 0.382678 -0.127813
-24670 -22170 -1591 0.962635 0.0799955 0.258718
-48719 -16891 900 0.689388 -0.724151 -0.0186644
-59778 -20834 -777 0.905183 0.423208 0.0392288
-38931 -19038 -1305 0.706509 0.653604 0.271379
-52721 -20297 -2036 0.51273 -0.547867 0.661022
-59773 -20658 -25 0.944845 -0.300349 -0.130608
-48671 -16882 1820 0.652919 -0.75568 -0.0514271
-59703 -21164 352 0.963699 0.256487 -0.074158
-44241 -12899 1629 0.635174 -0.771843 -0.0284926
-39079 -8418 -16 0.974895 0.105766 -0.195944
-33494 -3312 -2216 0.908003 -0.409616 -0.0880066
-39760 -3013 -1438 0.716964 -0.696749 0.0224333
-23229 5605 703 0.953204 -0.293775 -0.0713968
-23285 5748 -1724 0.990764 0.134588 -0.0165381
-26297 5734 150 0.961058 -0.276298 0.00522068
-26285 8141 -175 0.978953 -0.202498 -0.0254276
-26380 6979 152 0.99472 -0.0501483 -0.0895369
-28708 10905 -195 0.981515 -0.191265 0.00680416
-26331 7866 -1646 0.813736 -0.579077 -0.050035
-31686 14934 1029 0.561771 0.589623 0.580309
-26369 19901 -2768 0.0675244 -0.0510089 -0.996413
-11867 16831 483 0.726116 -0.676163 -0.124734
-15581 16566 -2180 -0.591384 -0.766228 0.251314
-41258 47889 -1902 0 0 1
-10493 18045 -257 0.475028 -0.877992 0.058975
-9169 14812 513 0.656833 -0.268169 -0.704738
-9293 19035 623 0.67755 -0.729648 -0.092408
-8986 19321 627 0.66051 -0.748791 -0.0551206
-7280 21092 -142 0.559458 -0.826498 -0.0625191
-3301 24677 -2087 0.0915371 -0.905093 0.415244
-2997 25074 592 0.65751 -0.749153 -0.080318
-2669 25373 598 0.665199 -0.745587 -0.0401144
-3251 24768 884 0.37592 -0.926296 -0.0256763
-2950 25090 -912 0.643696 -0.765254 0.00646947
-2676 25307 900 0.677713 -0.730931 -0.0802814
-2566 25415 904 0.681632 -0.726791 -0.0845716
-2304 25636 911 0.679344 -0.733332 -0.0267646
-271 27836 -1336 0.661624 -0.749024 0.0348917
531 28554 -1371 0.29387 -0.502847 -0.812887
-1396 26526 -959 0.457126 -0.88441 -0.0940941
570 28488 -2217 0.159637 -0.585731 -0.794629
573 23163 682 -0.0361728 -0.356776 -0.93349
1471 28596 -2228 0.565647 -0.746599 -0.35019
77 27351 -824 0.75029 -0.660666 0.0242117
607 28036 -845 0.671477 -0.73824 -0.0641893
1411 28583 -1885 0.649008 -0.760535 -0.0193679
1888 29006 -1915 0.651718 -0.75842 -0.00797267
2732 29720 -1966 0.626774 -0.776639 0.0631367
3198 30119 -1995 0.606555 -0.79375 0.0452973
6654 31510 755 -0.378038 -0.681348 0.62678
7634 19398 -256 0.671068 -0.738799 0.0620014
13168 37822 1177 0.475872 -0.742438 -0.471521
16101 40415 1538 0.667496 -0.741927 0.0631914
29602 52144 -380 0.177834 -0.983075 -0.0440337
32534 54682 -403 0.425569 -0.904926 -0.000633908
52575 72846 -1636 -0.306985 -0.925248 0.222883
29481 52228 333 0.344236 -0.928581 0.138705
64765 47718 -1943 -0.0235951 -0.0241427 -0.99943
38258 -1940 -470 -0.924617 0.296163 0.239521
38231 -2059 -470 -0.842552 0.185032 0.505835
37369 -724 1098 -0.471033 0.793763 0.384797
39993 -3102 -493 -0.822931 -0.560816 -0.0909436
34435 -3012 810 -0.602213 0.773279 0.198443
30414 -8841 -201 -0.60673 0.77149 0.191526
28846 -7750 1056 -0.0738099 0.0323004 0.996749
4566 -1448 -2188 0.0843429 -0.0450778 0.995417
33377 -16760 1320 -0.659229 0.743217 0.114219
25963 -12347 160 -0.765461 0.629984 -0.131109
32163 -15847 199 -0.999602 -0.0224735 -0.0170689
7126 -3492 -1555 0.436742 0.897555 0.0604252
5647 -3666 -2226 -0.117171 -0.116644 0.986238
5662 -3740 -2244 -0.0987112 -0.152851 0.983307
29092 -26161 -481 -0.967935 -0.250228 0.0220801
31716 -24546 1418 -0.685389 0.728175 -0.00170828
29092 -26127 -1410 -0.910335 -0.408167 0.0684812
13189 -11550 -1787 -0.999248 0.025408 0.0292792
59236 -84933 1806 -0.169412 0.984899 -0.0356925
38301 -70461 -1460 -0.759614 0.649887 0.0251814
38233 -70600 -1462 -0.752553 0.658149 0.022431
38074 -70836 -1464 -0.767647 0.638185 0.0586333
37895 -71037 -1466 -0.754744 0.647752 0.103821
38588 -70287 1399 -0.710777 0.703323 -0.0115489
38380 -70431 1399 -0.75962 0.649812 0.0268712
38285 -70785 1404 -0.762924 0.646159 0.0206063
46517 -65569 -2419 0.0120701 -0.0155486 0.999806
46203 -65780 -2418 0.0130289 -0.0169419 0.999772
46071 -65812 -2417 0.0130289 -0.0169419 0.999772
45942 -65848 -2416 0.0130289 -0.0169419 0.999772
45616 -66041 -2415 0.0145257 -0.0204264 0.999686
45513 -66114 -2415 0.0145257 -0.0204264 0.999686
45366 -66123 -2413 0.0145257 -0.0204264 0.999686
38216 -70721 -509 -0.805376 0.589938 0.0578223
38497 -70455 923 -0.759719 0.649951 0.0197951
38427 -70589 924 -0.799121 0.601072 0.010876
38151 -70877 925 -0.742907 0.666044 -0.0668876
38549 -70317 -1936 -0.61331 0.690358 0.38374
38359 -70496 -1938 -0.694183 0.576898 0.430465
38334 -70714 -1942 -0.719936 0.552329 0.420269
7943 -32422 -212 -0.688869 0.722373 0.060297
8132 -32246 -1200 -0.774826 0.632062 -0.0119356
4275 -26669 -814 0.501088 0.855981 -0.127307
-7120 -16030 517 0.14629 0.331849 -0.93192
-10222 -18964 -265 0.419062 0.902104 0.102933
-10194 -18870 -775 0.272724 0.959653 -0.0684611
-12806 -21310 -897 0.157579 0.982148 0.102737
-32566 -37557 1164 0.652584 0.757578 -0.0144889
-75688 -71086 -1890 0 0 1
-57929 -55443 1876 0.914998 0.382678 -0.127813
-53101 -50622 -2207 0 0 1
-75590 -71273 1194 -0 -0 -1
-21009 -10809 -2406 0.0594893 0.0211019 0.998006
-39240 -8559 -493 0.977802 -0.193458 0.0804813
-32774 -6094 -1599 0.818421 0.28857 0.496905
-52281 -13845 300 0.654714 -0.755738 -0.0145267
-43079 -5795 -275 0.796618 -0.604443 0.00704265
-40006 -3027 -254 0.82554 -0.564342 0.00119456
-29929 6 -190 0.959343 0.267319 -0.0905588
-30231 -462 -2172 0.778217 -0.606101 -0.164377
-29883 17 -1968 0.899575 0.427629 -0.088868
-23340 5554 706 0.915259 -0.387021 -0.111873
-24241 6724 590 0.726564 0.669139 0.156071
-26312 8205 -2310 0.976323 -0.20895 0.0559759
-26307 8218 -2145 0.977871 -0.206576 0.0330817
-28732 11120 -379 0.98724 -0.138344 0.0788491
-28895 11773 -2241 0.804542 0.574025 -0.152342
-35372 18860 -1684 0.867899 0.493401 0.0574982
-13934 16411 633 0.73921 -0.672256 -0.0404917
-11970 16721 -988 0.552595 -0.799557 0.235259
-11924 16935 -871 0.891108 -0.442438 0.100871
-12002 16699 -743 0.805265 -0.587645 -0.0788787
-10380 18231 -133 0.68434 -0.720729 -0.110587
-10693 20571 -285 0.65903 -0.748203 0.0766237
-10986 20538 -980 0.620654 -0.746547 0.239698
-10294 18110 116 0.632948 -0.773487 0.0330734
-10215 18449 -636 0.78647 -0.534276 -0.309861
-8213 20058 -2208 0.571767 -0.752645 -0.326508
-7217 21065 124 0.635994 -0.771162 0.0286679
-3125 24843 -2099 0.636712 -0.714385 0.290262
-2886 25154 594 0.666099 -0.742286 -0.0729611
-3176 24859 -1801 0.533339 -0.840227 0.0978109
-3128 24910 -906 0.581171 -0.813587 0.0177724
-3074 24943 889 0.62592 -0.778389 -0.0483086
-2820 25156 896 0.660758 -0.746568 -0.0776885
-184 27933 -1341 0.651838 -0.71329 0.257536
-1770 26140 927 0.681883 -0.730711 -0.0331201
-925 26977 -1939 0.833454 -0.552585 0.00213449
-444 27080 -977 0.179445 -0.665851 -0.724183
-147 27092 -978 0.507036 -0.86032 -0.0525814
1389 28761 -2241 0.495805 -0.575196 -0.650636
419 27832 -1005 0.567249 -0.686937 -0.454254
296 27742 -836 0.713245 -0.48489 0.506125
384 27806 -838 0.689059 -0.541945 0.481138
6447 31761 759 0.199316 -0.709515 0.675915
3254 30195 -2000 0.572062 -0.819497 0.0342084
9542 34758 844 0.671423 -0.655477 0.345746
5726 30394 172 0.577746 -0.661278 0.478457
8894 34207 -1485 0.595982 -0.741767 0.30755
5892 18368 -237 -0.75913 -0.632679 0.153095
9651 34772 1060 0.672659 -0.70664 0.219522
16272 40596 1024 0.661587 -0.746122 0.0748632
5342 18968 -477 -0.656899 -0.571157 -0.492203
21499 45238 1770 0.652481 -0.751301 0.0990753
32391 54832 -403 0.345481 -0.938422 0.00255943
53271 72601 -1640 -0.306985 -0.925248 0.222883
64895 47657 -1944 -0.0235951 -0.0241427 -0.99943
65120 47508 -1946 -0.0235951 -0.0241427 -0.99943
5390 3179 -2452 -0.0369157 0.110008 0.993245
8329 3945 272 -0.947697 0.308706 -0.0810596
31209 2017 -1501 -0.806385 -0.0156915 0.591183
31265 1233 -1501 -0.907932 -0.19534 0.370812
63683 4095 354 -0.666649 0.727294 -0.163164
35940 -1784 843 -0.614572 0.769793 0.172395
43720 1215 243 -0.645073 0.762874 -0.0436383
38377 -2532 -244 -0.757592 0.115022 0.642514
42461 178 236 -0.690842 0.721442 -0.047527
28271 -3077 -350 -0.720078 0.440506 0.536136
33751 -4643 -216 -0.743362 -0.649426 -0.160183
32736 -6782 -212 -0.670009 0.740025 -0.0587476
30066 -10372 745 -0.451597 0.810947 0.372055
29610 -8994 -12 -0.484401 0.869976 -0.0921795
4588 -1407 -2192 0.0824804 -0.0480541 0.995433
29416 -10828 174 -0.944677 0.30661 0.116515
26135 -12232 -11 -0.690229 0.70952 -0.142003
5927 -2783 -2166 0.0149027 0.060718 0.998044
7459 -3973 -1225 -0.682084 0.23276 -0.693242
22559 -12924 -1093 -0.512894 0.787512 0.341708
4787 -2594 -2136 -0.0319596 -0.00343246 0.999483
6435 -3145 -1879 -0.966799 0.249178 -0.0566514
31719 -20261 -15 -0.405933 0.74761 0.525639
21742 -15137 -1114 -0.349634 0.919037 0.18201
32270 -24094 1183 -0.648658 0.760358 -0.0331422
32243 -24153 1184 -0.646455 0.762545 -0.0249087
22159 -17311 -178 -0.986808 0.0327643 0.158546
3888 -2829 -2196 0.00709317 -0.0896761 0.995946
37526 -36160 -949 -0.892348 0.451063 0.0160197
32226 -24062 1422 -0.652362 0.755257 -0.0633225
13301 -11545 -2008 -0.989175 0.128377 0.0710744
22274 -17683 -688 -0.991883 0.045403 -0.11877
40174 -40313 1671 0.0103157 -0.0074895 -0.999919
37798 -71124 -1467 -0.717658 0.686174 0.118877
37603 -71298 -1468 -0.684915 0.721298 0.103057
37415 -71485 -1469 -0.644824 0.756163 0.111448
38205 -70903 1405 -0.753929 0.656897 0.0088218
37115 -71731 -1471 -0.640114 0.766242 0.0559261
37594 -71372 1407 -0.658668 0.752296 0.014359
37308 -71646 1409 -0.651904 0.758132 0.0160464
39573 -70133 1884 0.12341 0.992032 0.0253413
37781 -71425 -32 -0.667289 0.736214 -0.112761
38068 -70989 926 -0.742348 0.668498 -0.0450541
37869 -71153 927 -0.687763 0.724681 -0.0426524
37677 -71331 927 -0.658086 0.752572 -0.0236426
37584 -71428 928 -0.660917 0.750458 -0.000383856
37384 -71591 929 -0.652153 0.757654 -0.0256255
38149 -70903 -1944 -0.752438 0.656862 0.0486735
37194 -71778 929 -0.653114 0.757244 0.00491747
37957 -71080 -1946 -0.72964 0.6824 0.0442356
37473 -71520 -1950 -0.663627 0.744361 0.0743347
37172 -71767 -1952 -0.657612 0.741258 -0.134475
7863 -32518 -1605 -0.684481 0.715795 0.138284
7937 -32550 -1209 -0.706711 0.707501 0.00117606
8212 -31273 180 0.443124 0.856984 -0.263096
-15351 -23545 -1349 0.238366 0.950751 0.198125
-19082 -26718 574 0.120059 0.992304 -0.0302944
-280 -536 -300 -0.286809 -0.322962 0.901907
-20939 -28407 1037 -0.694106 0.719844 -0.00646371
-21448 -28909 1058 -0.678884 0.733437 -0.03446
-78807 -43981 2649 -0 -0 -1
-71642 -37416 -512 0.813934 -0.580955 0.00161887
-71563 -37424 -32 0.75363 -0.644133 -0.130895
-50836 -18925 1593 0.776783 -0.629361 -0.0226703
-50861 -18937 -21 0.986515 0.151545 -0.0618331
-51005 -18617 302 0.983739 -0.0783001 -0.161635
-39424 -8729 -496 0.964221 -0.257195 0.0642621
-39364 -8610 -255 0.983563 0.0340566 -0.177327
-33295 -3139 -411 0.995967 -0.0138216 0.0886477
-39346 -8374 -1211 0.985438 0.0733021 -0.153426
-33238 -3197 -1602 0.986265 -0.124935 0.108043
-33384 -2942 -212 0.931456 0.359716 -0.0547127
-29937 -171 -1972 0.993415 -0.114388 -0.00655511
-30052 81 -905 0.812698 0.550419 -0.191211
-26942 3068 -1948 0.878915 0.437888 -0.18911
-26513 5509 -2270 0.505978 -0.540761 0.671985
-26385 5845 -2103 0.895933 -0.387842 0.216524
-23622 5283 -1740 0.763005 -0.644865 -0.0444202
-23223 5633 -2434 0.948017 -0.272743 -0.163938
-28899 10874 -196 0.909205 -0.413523 -0.0484231
-28849 9661 -12 0.951132 0.223264 -0.213309
-28788 11035 -1296 0.961718 -0.190112 0.197373
-26545 7045 -664 0.913295 0.398576 -0.0838422
-28875 9864 170 0.94982 0.13361 -0.282826
-28935 10813 -1114 0.828809 -0.556229 -0.0607054
-26132 9150 -1824 0.936129 -0.147938 0.319024
-28805 11232 -932 0.988797 -0.0633976 -0.135134
-36344 19677 -262 0.970104 -0.128906 -0.205623
-36415 19710 -1739 0.938855 0.337606 -0.0676206
-14199 16302 636 0.661751 -0.74952 0.0174716
-11927 16685 -2337 0.544238 -0.651599 0.528416
-11835 16778 -2339 0.466104 -0.680319 0.565608
-10324 18213 -258 0.650045 -0.753203 0.100627
-11379 17126 -2095 0.624949 -0.666668 -0.406193
-10304 18359 -886 0.772171 -0.59423 0.22504
-10391 18289 -634 0.615037 -0.741522 -0.268094
-7285 21144 -275 0.627487 -0.775875 0.065409
-2067 8765 -2444 0.00550979 -0.0189338 0.999806
-3352 24739 585 0.208329 -0.975828 -0.0660201
-3067 24995 590 0.637147 -0.765179 -0.0924325
-3353 24697 -1791 0.105675 -0.994319 0.0127834
-3267 24777 -10 0.281806 -0.948701 -0.143359
-3106 24933 -1806 0.585767 -0.806453 0.0806888
-3286 24737 883 0.361862 -0.93193 0.0237075
-3000 24985 890 0.658397 -0.748681 -0.0773945
-2637 25325 901 0.675638 -0.728177 -0.115203
1347 29065 -2438 0.350799 -0.53539 -0.768308
552 27922 -1008 0.682633 -0.729589 -0.0413753
200 27264 152 0.776494 -0.629598 0.0257509
859 28162 -1856 0.644162 -0.764796 0.0119612
1244 28524 -860 0.65751 -0.750451 -0.0671092
1696 28844 -1903 0.657521 -0.753361 -0.010639
2499 29585 -1071 0.674158 -0.738458 -0.0138451
5313 30139 -376 -0.214744 -0.908002 -0.359747
2132 29211 -1929 0.662582 -0.748985 0.00257397
2227 29256 -1933 0.660155 -0.750889 0.0190154
2938 29901 -1979 0.659543 -0.746225 0.0902892
5457 30119 -194 0.243669 -0.95775 -0.152779
3409 30295 -2008 0.492446 -0.870163 -0.0177313
5491 31042 927 0.552271 -0.614017 0.563898
6838 18951 -968 -0.594239 -0.762766 0.255085
5444 17617 -1879 0.222278 -0.925064 -0.307978
24684 48600 -993 0.658945 -0.751903 -0.0208293
16411 40656 1288 0.665583 -0.743414 0.0658457
16438 40702 1551 0.667921 -0.742675 0.0481211
40206 62069 1730 0.620745 -0.775373 0.116067
40221 62077 2171 0.620745 -0.775373 0.116067
40155 62144 -2226 0.570716 -0.821035 -0.0136124
44507 52091 -2469 -0.305157 -0.484042 -0.820112
70149 57112 -1647 0 0 1
70137 57257 -2724 -0.651785 -0.684704 -0.326123
27122 16778 -2291 -0.961941 -0.244056 0.122911
20957 10511 -1685 -0.576306 -0.166911 0.800007
43909 1320 -278 -0.665456 0.674084 0.320593
63838 4205 355 -0.789711 0.430693 0.436876
36976 -1066 1087 -0.525749 0.713075 0.463802
43928 1429 244 -0.663945 0.747652 0.0139125
38494 -1567 -15 -0.891061 0.432917 -0.136356
35500 -2057 -14 -0.644688 0.706172 0.292743
29826 -6938 900 -0.629423 0.776726 -0.0228813
30268 -8850 -200 -0.491276 0.83557 0.245907
29131 -7533 1064 -0.675192 0.731886 -0.0919748
29127 -9337 899 -0.890194 0.453761 -0.0406758
29667 -10656 175 -0.626682 0.771371 0.110709
4366 -1820 -2161 0.0779204 6.6909e-05 0.99696
33984 -16209 1106 -0.677348 0.734223 -0.0460046
32226 -14884 197 -0.988074 0.153951 -0.00283585
32214 -15001 198 -0.988008 0.15419 0.00815102
4228 -2091 -2155 0.0611242 0.0165172 0.997993
7528 -4121 -1361 -0.947326 0.258961 -0.188446
32680 -23794 947 -0.638964 0.769146 0.0117689
32587 -23857 1428 -0.641456 0.763661 -0.0731876
29186 -26719 -251 -0.970326 -0.225833 0.0864063
37483 -36348 290 -0.681782 0.718563 -0.137261
29281 -36286 -1958 -0.602791 0.797893 0.00308143
60333 -85465 -1283 0 0 1
41978 -69239 -1474 -0.445958 0.895019 0.00792234
41749 -69351 -1474 -0.445958 0.895019 0.00792234
36712 -72057 -1473 -0.690317 0.718334 0.0863631
36436 -72358 -1475 -0.710238 0.695671 0.107717
36230 -72513 -1476 -0.702382 0.702946 0.111916
36603 -72219 1412 -0.654618 0.755947 0.00432868
36509 -72314 1413 -0.663845 0.747864 -0.00309172
36195 -72541 1414 -0.670485 0.741923 0.000518916
36114 -72664 1416 -0.670779 0.741654 -0.00230598
36899 -72208 -32 -0.645202 0.731534 -0.220391
41925 -69329 -1956 -0.445958 0.895019 0.00792234
41798 -69366 -1956 -0.445958 0.895019 0.00792234
36982 -71921 930 -0.658236 0.75281 0.00152424
36878 -71995 930 -0.651337 0.75811 -0.0320873
23608 -49229 -1643 0.688736 0.581345 0.433221
36694 -72194 931 -0.652606 0.756074 -0.0495759
36478 -72333 931 -0.670058 0.740918 -0.045416
36404 -72468 932 -0.673989 0.737935 -0.0345008
36867 -72007 -1953 -0.656169 0.742177 -0.136441
36294 -72566 -1959 -0.710414 0.703317 0.0256296
-15834 -23792 -1372 -0.474658 0.878217 0.058604
-39722 -45323 -1098 -0.186546 0.980899 -0.0551131
-22042 -29660 -14 0.407466 0.90626 -0.112534
-39889 -45462 -742 -0.222819 0.974857 0.00227533
-39888 -45430 -383 -0.232098 0.972598 0.0135711
-18912 -25695 -1911 0.426087 0.902854 0.0574866
-39858 -45332 335 -0.182272 0.983231 -0.00588903
-39705 -45390 694 -0.203327 0.978717 0.0277781
-89856 -53969 -1286 0.622756 -0.730323 0.280719
-71809 -37790 -996 0.803245 -0.591588 0.0694345
-71651 -37560 2857 0.626534 -0.773891 0.0924582
-44713 -13327 814 0.728425 -0.589013 -0.349943
-51034 -19039 -2287 0.746115 -0.645933 0.161501
-51064 -19201 -1966 0.85476 -0.516034 0.0556263
-51256 -18696 -1642 0.999498 0.0235906 0.0211329
-32912 -6495 -1609 0.868996 0.280967 0.407312
-39568 -8747 -1220 0.964896 -0.252674 -0.0716358
-39537 -8610 -1218 0.983364 -0.0274943 -0.179555
-33378 -2983 -2207 0.977525 0.210734 -0.00596715
-33451 -2883 -2211 0.957174 0.286463 0.0419164
-25232 3832 903 0.606425 -0.74674 -0.273183
-26349 5683 -171 0.928528 -0.350669 -0.121931
-24361 6882 593 0.722589 0.669132 0.173574
-26292 7972 -2303 0.963352 -0.226425 0.143823
-28974 9772 -376 0.947347 0.316518 -0.0484738
-26314 8130 -2143 0.989191 -0.144546 -0.0246482
-26386 8078 -1160 0.894006 -0.417214 0.163355
-26373 7111 152 0.994312 -0.0533192 -0.0921986
-26345 8033 -1814 0.922966 -0.348252 -0.163873
-29012 10912 -1303 0.82497 -0.547662 0.139607
-28956 9795 -1103 0.889498 0.44642 0.0974845
-28775 11604 -1304 0.955193 0.0954164 0.280184
-28758 11632 -935 0.965119 0.207016 -0.16028
-63957 49614 -1474 0.788409 0.535771 -0.30226
-11889 16690 114 0.665653 -0.744038 -0.0575531
-11789 16773 114 0.79784 -0.601315 -0.0432585
-11603 16882 -2087 0.637642 -0.660623 -0.396219
-10425 20859 -703 0.136507 -0.9618 -0.237289
-7259 21240 -944 0.636852 -0.762836 0.111808
-7155 21099 124 0.651619 -0.758445 0.0124042
-1831 8436 -2427 0.0296502 -0.0300701 0.999108
-3243 24812 587 0.387068 -0.914177 -0.120248
-3210 24860 588 0.510788 -0.854106 -0.0979715
-3176 24905 589 0.53613 -0.837567 -0.105101
-1643 26313 618 0.659914 -0.751303 0.00751985
-3198 24836 -904 0.582056 -0.812547 -0.0312798
-2871 25124 -10 0.6498 -0.754917 -0.0886564
-2490 25458 905 0.671782 -0.740072 -0.031662
-2358 25122 -2569 -0.24132 -0.187191 -0.952221
947 28923 -1389 0.291801 -0.45333 -0.842225
597 27983 -1010 0.676552 -0.734376 -0.0544912
643 28038 -1012 0.672584 -0.737753 -0.0578901
163 27403 -826 0.750508 -0.660805 -0.00863071
3145 30068 -1991 0.616961 -0.786134 0.0367771
5516 30171 -194 0.385693 -0.917068 -0.101133
7835 33337 -1439 0.20569 -0.971718 0.115998
5443 18889 -242 -0.76983 -0.611284 0.183558
12554 33294 833 0.148358 -0.985114 0.0868373
8598 20237 -270 0.66732 -0.744577 0.0170269
7428 19160 -865 0.646091 -0.756954 0.097912
24881 48799 -998 0.647107 -0.762398 -0.00155042
16614 40791 1294 0.659433 -0.748879 0.0657926
9616 21430 -2392 -0.600195 -0.496842 -0.626828
27065 50803 -1390 0.702328 -0.711558 -0.0205136
58847 86973 3708 -0.719792 -0.683806 0.119616
19084 13965 -291 -0.998225 0.0594432 -0.00355553
41564 10262 -1544 -0.958697 -0.266735 0.0987588
51711 8376 -332 -0.818349 0.397481 0.415107
44015 1523 -17 -0.610071 0.785905 0.100828
34930 -2681 612 -0.642337 0.765939 -0.0271923
35489 -2254 1045 -0.567642 0.688485 0.451411
28761 -7941 877 -0.0835872 -0.0156051 0.996378
29260 -9139 -12 -0.702076 0.708812 -0.068365
29838 -10506 176 -0.683511 0.722256 0.105637
7009 -3593 -1765 -0.800248 0.450479 0.395816
34430 -15824 1340 -0.742868 0.655119 -0.137716
34381 -15867 1339 -0.742868 0.655119 -0.137716
22099 -13010 -1537 -0.773591 0.620321 -0.129461
23974 -18419 -1271 0.0703296 0.986919 0.145065
13372 -11627 -746 -0.906917 -0.414556 0.0751319
13348 -11617 -1167 -0.98098 -0.192695 0.0233999
45224 -67458 -1479 -0.53585 0.843246 -0.0424343
44890 -67647 -1478 -0.53585 0.843246 -0.0424343
63132 -83953 -665 0 0 1
35540 -73233 1420 -0.668532 0.743562 -0.0134154
35224 -73461 1421 -0.649734 0.759876 -0.0208419
45366 -67379 -1961 -0.528346 0.847633 -0.0486795
45283 -67485 -1962 -0.53585 0.843246 -0.0424343
36197 -72657 -1960 -0.710414 0.703317 0.0256296
3195 -25705 -164 0.765569 0.638314 -0.0803673
4235 -26689 -814 0.507076 0.848485 -0.151482
3530 -30108 -913 -0.139691 0.910834 0.388416
-15424 -23400 -344 0.186672 0.978994 0.0820039
-12727 -21175 -10 0.328816 0.940434 -0.0863908
-12815 -21101 -891 0.224212 0.97423 0.0245913
-22438 -29572 -456 0.0648328 0.996327 0.0559378
-15284 -23536 -11 0.509641 0.857225 -0.0736965
-32404 -38500 -618 -0.23072 0.972994 -0.0070728
-32127 -32111 -2178 0.0359208 0.272149 0.961584
-39936 -45545 -1823 -0.202631 0.953181 -0.22447
-46643 -50506 -1660 0.344749 0.914141 0.213293
-88102 -56906 3078 -0 -0 -1
-90150 -53981 -665 0.903848 -0.003588 0.427839
-79473 -44518 2674 0.0296872 0.00971341 0.999512
-44987 -13657 -577 0.982708 0.181304 0.0375988
-44982 -13704 1101 0.789114 -0.597195 -0.143727
-37259 -10488 1137 0.948775 0.213663 0.232755
-44967 -13504 261 0.974159 -0.0890798 -0.207556
-45036 -13448 261 0.974159 -0.0890798 -0.207556
-26602 2616 -2240 0.972695 -0.181349 0.144832
-40666 -863 -1225 0.825613 0.564227 0.00327536
-26373 5652 -2261 0.824655 -0.240269 0.51207
-23554 5355 -2025 0.680149 -0.713182 0.169611
-23250 5632 -2006 0.869371 -0.402898 0.286125
-26382 5670 -2100 0.821068 -0.485179 0.300748
-26522 6942 -337 0.989289 -0.0812086 -0.121291
-24808 4206 890 0.627573 -0.693747 -0.353364
-24519 4475 882 0.626496 -0.710796 -0.3198
-28948 5697 -12 0.174787 -0.984599 -0.00384311
-23182 5671 702 0.963144 -0.267744 -0.0258078
-29141 8172 -1272 0.843764 -0.536057 -0.0265396
-26379 5829 -1780 0.971141 -0.192225 -0.141187
-26378 5916 -1781 0.981527 -0.146026 -0.123613
-26406 8250 -834 0.978834 -0.140017 -0.149263
-31696 14866 -430 0.959867 0.28045 -0.0015961
-31684 14788 -2094 0.915855 0.39558 0.0687398
-41504 25163 -1750 0.863917 0.496777 -0.0828225
-29560 18435 -2086 0.581126 0.409023 0.703557
-44177 28190 -1266 0.766026 0.642435 -0.0219415
-11799 16782 604 0.745398 -0.660683 -0.0887641
-10273 18256 -258 0.657742 -0.745059 0.110739
-11501 17018 -2093 0.621472 -0.645799 -0.443527
-10242 18453 -888 0.829653 -0.508671 0.230066
-10721 17723 -2110 0.529129 -0.742826 -0.41016
-10282 18366 -635 0.787659 -0.556997 -0.263341
-8859 19445 629 0.686576 -0.723907 -0.0676147
-7196 21172 -142 0.664199 -0.741954 -0.0913461
-7135 20820 -2507 0.37854 -0.666866 0.64187
-3385 24688 584 0.238079 -0.96802 -0.0790877
-3031 25028 591 0.662725 -0.747096 -0.0514147
-3140 24886 -1803 0.602892 -0.794449 0.0732982
-3089 24943 -10 0.624012 -0.772303 -0.118983
-2980 25031 -10 0.672357 -0.73511 -0.086889
-3093 24954 -908 0.646019 -0.762748 -0.0295696
-1123 26789 628 0.714468 -0.687256 0.131206
1144 29073 -358 0.121081 -0.242851 -0.962477
-749 27350 -987 0.719146 -0.647707 -0.251602
814 22741 669 0.0480909 -0.207607 -0.97703
-350 27179 -819 0.000152671 -0.822521 0.568734
1143 28398 -1026 0.617058 -0.78321 -0.0762964
1087 28356 -1869 0.622962 -0.78184 0.0253742
1178 28398 -1872 0.620317 -0.784001 0.0234414
4653 30478 722 0.0235908 -0.999604 0.0153228
2807 29871 -1082 0.659501 -0.751624 -0.0109631
7211 31458 949 0.18372 -0.78128 0.59653
5581 31785 -972 0.71453 -0.692955 0.0962273
12095 36904 910 0.652423 -0.548873 0.522572
4261 18820 -1967 -0.861681 -0.49423 -0.115071
16734 40998 1037 0.672712 -0.736944 0.0661189
6654 19118 -731 -0.358117 -0.899031 0.251984
25152 48951 -1003 0.64231 -0.76643 0.00475006
7008 18835 -1325 -0.0634431 -0.971892 -0.226716
16703 40985 1564 0.663723 -0.744207 0.075015
10263 21555 -1859 0.692964 -0.708644 -0.132758
29638 53217 -748 0.328528 -0.706075 -0.627318
77552 25387 -1001 -0.69791 -0.658196 0.28231
31259 1331 -1501 -0.903331 -0.173919 0.392103
35092 -2365 -14 -0.584947 0.796722 0.15189
32647 -6769 -410 -0.639239 0.767871 -0.0418156
34810 -4890 -14 -0.474778 0.871089 0.125661
32533 -6900 -211 -0.640371 0.766951 -0.0413659
4565 -1487 -2193 0.0862192 -0.0452337 0.995249
26112 -12289 -355 -0.737635 0.572825 -0.357445
27932 -10734 166 -0.60448 0.784889 -0.136212
5997 -2634 -2167 0.0156886 0.108507 0.993972
34618 -15648 1343 -0.625879 0.375772 -0.683426
34558 -15687 1342 -0.759919 0.546666 -0.351681
4313 -1959 -2164 0.0753505 0.00868621 0.997119
33175 -16926 1094 -0.597005 0.739698 0.310536
33367 -16624 1318 -0.635616 0.7621 0.123271
26024 -12326 160 -0.765461 0.629984 -0.131109
33207 -16871 1317 -0.660823 0.742901 0.106822
34114 -18818 -15 -0.699865 0.711752 -0.0599845
33991 -18922 216 -0.674034 0.734197 -0.0814477
4074 -2396 -2159 0.0133936 -0.0599181 0.998113
31768 -20963 1118 -0.685819 0.727539 0.0184037
21400 -13859 -769 -0.896677 0.424696 0.124916
29008 -26013 217 -0.967768 -0.235652 -0.088838
23295 -24448 -2425 -0.694275 -0.218943 0.685599
28843 -30280 -1259 0.617084 0.786279 0.0311882
13744 -17143 253 -0.596852 0.758972 0.260247
34925 -73725 1423 -0.641673 0.76687 0.0128703
34732 -73918 1425 -0.586807 0.808981 0.0347394
34625 -73992 1425 -0.563524 0.823897 0.060282
34412 -74142 1426 -0.565831 0.82434 0.0173089
8456 -31622 -986 0.605663 0.671607 -0.42675
4171 -26517 149 0.575756 0.730596 -0.367063
3675 -30119 -914 -0.139691 0.910834 0.388416
-35846 -41871 -349 -0.137654 0.990475 -0.00313253
-18633 -26166 -1924 0.770771 0.0970456 0.629678
-40147 -45588 -1467 -0.246186 0.96503 -0.0900536
-78560 -46867 -579 0 0 1
-72335 -38212 -1004 0.655313 -0.755111 -0.0192994
-72167 -37975 2880 0.681319 -0.729515 0.0600943
-38366 -19404 -1550 0.773747 0.556591 0.302526
-67687 -31306 -2244 -0.0265687 -0.0126067 0.999567
-45132 -13434 -298 0.981206 0.183902 -0.0584439
-45168 -13429 -18 0.979144 0.172988 -0.10655
-45246 -13202 262 0.968073 0.05768 -0.243942
-39644 -2812 -16 0.809995 -0.583776 -0.0557958
-40793 -802 -1229 0.826619 0.56275 0.00364136
-29966 -108 -903 0.98732 0.050374 -0.150538
-29994 34 -904 0.837853 0.513222 -0.186029
-26399 5891 -2105 0.895933 -0.387842 0.216524
-29028 5684 341 0.0143294 -0.998557 -0.0517486
-28915 10827 -379 0.829069 -0.549441 0.103723
-28617 11429 -1479 0.877222 -0.0189724 0.479709
-28768 10905 -2394 0.661996 -0.358795 0.658048
-28705 11267 -196 0.997627 -0.0665445 -0.0176562
-28832 10871 171 0.939413 -0.341881 -0.0248959
-31781 14891 -1475 0.92458 0.350556 0.149205
-28807 10973 -929 0.979372 -0.0779886 -0.18641
-28825 11031 -930 0.98053 -0.121159 -0.154539
-28822 11082 -930 0.978702 -0.143096 -0.147191
-42786 26891 -921 -0.151529 -0.988227 -0.0211311
-37608 21052 -273 0.586684 0.669571 -0.455497
-41529 25522 -309 0.869591 0.492316 -0.0378918
-31697 14855 -2096 0.906973 0.41927 0.0401562
-41599 25579 -1760 0.878724 0.45675 -0.138649
-64333 50419 -2945 0.438857 0.319486 0.839841
-70414 58119 -36 0 0 1
-14643 16087 121 0.518572 0.124573 0.845911
-35272 42379 -22 0.625702 -0.780058 -0.00251542
-12005 16627 -2337 0.472916 -0.506688 0.720845
-11634 17319 -878 0.678328 -0.722156 0.135511
-11860 16705 114 0.703057 -0.70849 -0.0612582
-11741 16816 114 0.876155 -0.481691 -0.0180522
-11300 17183 -2095 0.605381 -0.663274 -0.439978
-7456 20997 -274 0.400493 -0.890839 0.214501
-1720 26228 616 0.696893 -0.717147 0.00632858
-3159 24866 -10 0.549711 -0.828645 -0.105666
-2997 25018 -1811 0.663968 -0.744571 0.0689916
-2946 25079 -10 0.662864 -0.741989 -0.100323
-273 26951 -973 0.294768 -0.947863 0.121108
251 27562 -831 0.805803 -0.539178 0.244884
